-4.16332 -6.44157 -0.69237 137 3 2 2
-3.88332 -6.69357 -1.12337 104 107 108 103
-4.16532 -7.32057 -0.84437 118 126 126 121
-3.42232 -6.14357 -0.73337 135 43 44 37
-3.71132 -6.19757 -1.69237 92 50 50 43
-4.22132 -6.67857 -0.75137 135 149 145 142
-3.91332 -6.20457 -0.52237 135 25 26 18
-3.42332 -6.68057 -1.68537 101 43 40 35
-3.71332 -7.40657 -1.68837 103 43 42 38
-4.48232 -7.34157 -1.69237 99 112 108 91
-3.84732 -8.23457 -1.69037 114 48 47 42
-4.41832 -7.95057 -1.68037 97 120 116 100
-3.42532 -6.25157 -1.68837 74 41 41 39
-3.43432 -6.06057 -0.23237 154 51 51 41
-3.92532 -8.09457 -1.68537 101 70 69 64
-3.36332 -6.90657 -1.68537 120 40 38 39
-4.04532 -6.22557 -0.31837 107 27 27 25
-4.83732 -7.95157 -1.68037 77 165 153 132
-3.87332 -6.30357 -0.83137 100 14 14 14
-4.11032 -7.05357 -1.69037 115 90 91 77
-3.79032 -7.31457 -1.19337 91 87 87 87
-4.01732 -6.12657 -0.91237 127 13 13 11
-4.04932 -6.06557 -1.69837 81 36 37 24
-3.76732 -6.11757 -1.13537 88 96 96 94
-4.76932 -6.04557 -1.68437 89 171 165 141
-3.85232 -7.87957 -1.16037 104 96 95 93
-4.36732 -7.31257 -0.46537 106 152 150 151
-3.88932 -7.47057 -1.12637 92 104 105 96
-4.73032 -7.91257 -0.24937 97 175 176 170
-4.95332 -6.89857 -1.68237 83 170 163 138
-4.27032 -7.45157 -1.68537 106 132 127 106
-3.63332 -6.40857 -1.69037 91 44 45 39
-4.48232 -7.88257 -0.80237 18 154 153 130
-4.34732 -6.40557 -1.69337 101 131 130 114
-4.23232 -7.23657 -0.75537 115 144 143 139
-3.99032 -7.58757 -1.68837 109 82 79 69
-4.11832 -6.12457 -0.80437 82 166 166 155
-3.63532 -6.15557 -0.65437 121 28 29 23
-3.42032 -6.29357 -1.06537 99 12 12 10
-4.16332 -6.51257 -0.76737 162 167 164 155
-3.63632 -6.78457 -1.68837 134 46 42 41
-3.70432 -6.75357 -1.22837 95 73 73 71
-4.01032 -7.87257 -1.03937 64 139 141 129
-3.49132 -7.60057 -1.68537 101 42 40 41
-3.57432 -7.81157 -1.68537 89 50 45 47
-3.57032 -7.66457 -1.68537 94 52 49 50
-3.71432 -8.02057 -1.23937 74 80 79 77
-4.69632 -7.46157 -1.68237 73 136 135 118
-3.77032 -7.52457 -1.20137 58 94 94 92
-4.19832 -6.18757 -1.70037 115 120 114 102
-4.83532 -6.33457 -1.68837 89 147 139 117
-3.69532 -6.28257 -0.93637 116 16 16 14
-4.26832 -7.88157 -1.68337 110 97 95 82
-3.42632 -6.05557 -1.28237 11 51 48 43
-3.70332 -8.16057 -1.68537 81 45 46 40
-3.50432 -6.19557 -1.23737 109 8 8 6
-3.63732 -6.12157 -1.69237 95 50 50 43
-4.76132 -8.16057 -1.68037 110 171 163 140
-4.33532 -6.68557 -0.52237 152 160 160 160
-3.91432 -6.34557 -0.87137 102 10 10 10
-4.18832 -8.23357 -0.87137 122 142 143 138
-4.28532 -7.31257 -0.67037 141 150 151 146
-3.91832 -6.40257 -0.94637 99 9 8 4
-3.78332 -7.38157 -1.69837 129 46 45 41
-3.99232 -6.32657 -0.94537 129 11 11 9
-3.77132 -7.67057 -1.20437 76 94 95 89
-4.14332 -8.22357 -1.21137 20 144 145 133
-3.69232 -6.55157 -1.20837 65 92 92 75
-4.13332 -7.67357 -1.68437 91 84 84 72
-3.91732 -7.87857 -1.68837 104 68 63 55
-3.78132 -6.12057 -0.24337 154 47 47 35
-4.21332 -7.36557 -1.69037 111 85 83 68
-3.41432 -6.19457 -1.28037 24 50 47 38
-4.17632 -7.80457 -0.86437 69 163 161 149
-3.91632 -6.68757 -1.68737 95 88 84 69
-3.49932 -6.13557 -0.66937 135 39 42 35
-4.68532 -8.16757 -0.24937 4 194 193 185
-3.85332 -6.32157 -0.88237 113 13 13 13
-3.98632 -6.47557 -1.69837 122 93 90 74
-4.35332 -6.96557 -1.68337 83 130 130 109
-3.36032 -7.10757 -1.68537 112 69 65 62
-4.23532 -6.81157 -0.70237 118 147 148 143
-4.37732 -7.02157 -0.32937 127 163 163 161
-4.23332 -7.52057 -0.76037 123 140 140 138
-4.55632 -7.88157 -0.80437 21 86 85 81
-4.19632 -8.08257 -1.68237 74 134 127 101
-4.30532 -6.04857 -0.32137 115 17 16 15
-4.43332 -8.09457 -0.25137 134 171 173 170
-4.71732 -6.68957 -1.69037 70 157 152 130
-3.98132 -7.42157 -1.68837 105 84 83 65
-3.83232 -8.17457 -1.69037 105 46 45 41
-4.20332 -6.89757 -1.68537 93 98 94 83
-4.21732 -6.05157 -0.59637 107 51 50 44
-4.41632 -6.61557 -1.68837 65 195 184 156
-4.87632 -6.33957 -1.68437 87 159 153 129
-3.78532 -6.25557 -0.81037 130 14 14 12
-4.34232 -7.10157 -0.52437 120 145 145 143
-4.32132 -6.19557 -0.31237 99 198 201 190
-3.92432 -7.81457 -1.69037 122 79 75 63
-4.97832 -7.59357 -1.68237 99 178 171 142
-3.98232 -7.93457 -1.17537 31 135 136 131
-3.56832 -7.95557 -1.43037 173 69 67 68
-4.02732 -6.29657 -0.63437 142 10 10 8
-4.39932 -7.03757 -0.18137 164 187 187 185
-4.28732 -7.94957 -0.69037 110 96 98 87
-3.50132 -6.68157 -1.68537 88 42 39 34
-4.06632 -6.67757 -0.95937 71 158 160 148
-4.00732 -7.80457 -1.04037 58 140 140 135
-4.83732 -6.12557 -1.68437 88 165 160 130
-4.29832 -6.89857 -0.60937 133 153 152 148
-4.21432 -6.19457 -0.61237 116 100 103 92
-3.62632 -7.90257 -1.55237 37 40 39 39
-4.88832 -8.08357 -1.69037 119 161 158 134
-3.56832 -7.23957 -1.68537 115 46 41 42
-4.42032 -6.86957 -1.69337 96 120 114 96
-4.12832 -6.04357 -1.69337 100 68 71 54
-3.38332 -6.05757 -0.14437 164 49 52 37
-4.25632 -6.88557 -1.69037 101 137 136 121
-3.77732 -6.83257 -1.68837 111 49 48 43
-4.26932 -6.04757 -1.69237 101 145 142 123
-4.40932 -8.23157 -1.68337 114 144 137 122
-4.13432 -7.46257 -1.68437 95 83 84 70
-4.08632 -6.26057 -0.83237 127 60 58 57
-4.30632 -6.60157 -0.55737 141 153 154 147
-4.19432 -7.31657 -0.80837 145 142 142 136
-3.53832 -7.00257 -1.69037 134 39 40 34
-3.57132 -6.62857 -1.69037 120 35 24 16
-4.25332 -6.36557 -1.68837 80 131 127 114
-4.08632 -6.04857 -0.82137 101 25 25 21
-3.84632 -6.05257 -1.69337 75 74 75 60
-4.70032 -7.38957 -1.68237 53 185 181 150
-4.00232 -7.38557 -1.69537 107 77 75 60
-3.85332 -6.81557 -1.68837 110 80 77 70
-3.78732 -6.19757 -1.10237 118 14 15 9
-3.64032 -7.03057 -1.68737 108 47 43 42
-3.50132 -7.66157 -1.31337 29 38 40 26
-4.24832 -6.54857 -0.66237 125 147 147 145
-3.88632 -6.33257 -1.05637 99 113 114 108
-3.50532 -6.96957 -1.68437 100 35 36 30
-4.08532 -7.23457 -1.68837 109 82 83 69
-4.16132 -6.96057 -0.83437 135 137 137 133
-4.40632 -7.88357 -0.38037 148 147 149 138
-3.64532 -6.81757 -1.69037 120 48 44 43
-3.57432 -6.82257 -1.68737 131 76 69 59
-4.76932 -7.36157 -1.69037 76 189 183 156
-3.94532 -6.44957 -0.96537 106 88 90 87
-4.62632 -6.60157 -1.69237 87 134 129 111
-3.98832 -6.61957 -1.69837 111 90 88 76
-3.88832 -6.15357 -0.25537 151 48 49 43
-3.70232 -7.60157 -1.68837 92 49 48 43
-4.82932 -6.49057 -1.69037 86 169 163 141
-3.83732 -7.32157 -1.68537 86 52 51 46
-4.13632 -7.38957 -0.88537 122 132 132 130
-3.36332 -7.81057 -1.68437 87 56 55 53
-3.77432 -6.33657 -1.69737 86 66 66 54
-3.50232 -8.16157 -1.68437 97 54 54 54
-4.07332 -8.17457 -1.68837 82 87 82 71
-4.61732 -7.94457 -1.68337 91 128 127 105
-4.14832 -6.32757 -0.74437 130 46 46 38
-3.85832 -7.58957 -1.69237 111 68 68 60
-4.22432 -6.53457 -0.68237 119 170 169 160
-4.11932 -6.33057 -1.70337 106 89 86 71
-4.26732 -6.61157 -0.66437 138 148 148 139
-4.04732 -6.49757 -0.91737 29 80 80 76
-4.41832 -7.10057 -1.68537 74 188 184 156
-4.00232 -7.45257 -1.03437 102 119 120 112
-3.35532 -6.26357 -1.27837 121 11 11 9
-4.36632 -7.59157 -0.47137 157 164 165 160
-4.05732 -6.40057 -0.88037 125 7 7 7
-4.15332 -8.16657 -0.90037 135 141 140 140
-4.02832 -6.75257 -0.99437 110 107 107 106
-4.34632 -7.24557 -1.68437 88 140 134 119
-4.62832 -6.25657 -1.68737 80 137 130 112
-3.64132 -6.16557 -0.67337 132 33 34 28
-3.64632 -6.18657 -1.18137 124 11 11 10
-4.41632 -7.88857 -1.68037 93 107 109 90
-4.30532 -6.81057 -0.54937 135 158 157 153
-4.26632 -6.39957 -1.68837 91 133 129 119
-4.84332 -7.56157 -1.69037 99 178 176 155
-3.49032 -7.89457 -1.69037 104 33 30 31
-3.93032 -6.37957 -0.89937 113 10 10 8
-3.92432 -7.93757 -1.68537 119 63 60 53
-4.00532 -7.52357 -1.03337 99 118 117 112
-3.36732 -6.15557 -0.79237 150 46 45 32
-4.39632 -7.04157 -0.24737 160 183 184 179
-3.84432 -7.39757 -1.68837 108 55 55 47
-4.41632 -6.83757 -1.69037 67 171 165 140
-4.02432 -6.33257 -0.91237 124 10 10 8
-3.76932 -7.30957 -1.20937 38 115 113 110
-3.95232 -6.25557 -0.97937 119 10 10 10
-4.13432 -6.68657 -0.88137 143 137 138 132
-4.28532 -7.66257 -0.66937 65 133 134 127
-3.85232 -7.10257 -1.69037 105 74 70 58
-3.62332 -6.64557 -1.26937 20 53 49 41
-3.92432 -6.04257 -1.69337 78 81 79 64
-4.10532 -6.35757 -0.65337 130 33 33 27
-4.41632 -7.88157 -0.32037 175 134 136 126
-3.62132 -6.89257 -1.26937 72 79 80 75
-4.31932 -6.04557 -0.31237 171 177 178 173
-4.44832 -8.19357 -0.21637 150 185 189 184
-3.92032 -6.26657 -1.69337 83 88 88 76
-3.49932 -6.89657 -1.31137 68 43 44 36
-3.77032 -8.04457 -1.29737 7 93 93 90
-4.18932 -6.81757 -1.69037 95 100 97 81
-3.99432 -6.75657 -1.02437 92 106 106 104
-4.55532 -7.73757 -1.68237 100 138 136 114
-3.70332 -6.33657 -1.01537 123 10 10 8
-4.30732 -6.04657 -0.37237 108 188 193 181
-4.27432 -6.19257 -1.68737 92 138 130 120
-4.23832 -6.81657 -0.70537 131 133 134 129
-3.56532 -7.74257 -1.68537 76 45 44 40
-4.68932 -7.74057 -1.68037 91 140 138 116
-4.35632 -7.88257 -0.53237 119 143 143 142
-4.48032 -6.27057 -1.69037 104 138 133 115
-3.76732 -7.59657 -1.69337 100 45 44 42
-4.20532 -7.18857 -1.69037 90 103 102 82
-4.62832 -6.52957 -1.69037 89 131 130 111
-3.86532 -6.59957 -1.12137 86 102 103 98
-3.36632 -6.14357 -1.29537 34 48 40 37
-3.99532 -7.39057 -1.03537 88 104 104 104
-3.87132 -6.88957 -1.12137 87 93 93 90
-4.14832 -6.21157 -1.68837 108 117 111 94
-3.91132 -7.04457 -1.68837 118 88 86 74
-4.54732 -6.46857 -1.68837 78 133 125 108
-3.98632 -7.88557 -1.68837 85 104 99 83
-4.26032 -8.16657 -1.03337 157 158 160 151
-3.71232 -7.87857 -1.69037 104 43 39 38
-3.64932 -7.19657 -1.69037 106 47 44 43
-3.56832 -8.00257 -1.51937 146 66 64 65
-4.38732 -6.89057 -0.25037 95 208 210 204
-3.91632 -6.96057 -1.69237 105 85 86 72
-4.12532 -8.09157 -1.68237 95 82 78 69
-3.50132 -6.40457 -1.24637 127 2 2 2
-4.63232 -8.01457 -1.68437 94 98 93 71
-4.42732 -8.16257 -0.32237 128 166 168 166
-4.34532 -7.39357 -1.68437 60 185 179 157
-4.27232 -7.59957 -1.68437 61 185 180 152
-3.50232 -6.46757 -1.68837 81 44 43 39
-4.11932 -6.25757 -1.69337 85 98 88 73
-4.12832 -6.61557 -1.69037 102 92 94 81
-4.41032 -6.19257 -1.68737 102 133 128 110
-4.20332 -7.59357 -0.81137 130 142 142 136
-3.64332 -6.69157 -1.69537 141 46 44 45
-3.99632 -7.17857 -1.03137 99 118 119 113
-3.55632 -6.21457 -0.87237 146 36 38 23
-4.26432 -6.12257 -1.69237 75 168 166 137
-3.34932 -6.08557 -0.50937 141 44 45 36
-3.77332 -6.19457 -1.13037 87 100 101 95
-4.62932 -6.53857 -1.68537 75 136 131 111
-4.36532 -6.96057 -0.39237 161 169 169 167
-4.19832 -8.23357 -1.16337 95 127 127 122
-4.03132 -7.24057 -1.00237 123 123 124 119
-4.83932 -6.82857 -1.68537 104 166 162 132
-4.24532 -6.26257 -0.58337 127 153 153 150
-4.27532 -6.11657 -0.45937 122 17 17 15
-3.64432 -7.60057 -1.25937 71 84 79 75
-3.34932 -6.31857 -1.10437 116 12 12 10
-3.65132 -7.66857 -1.25937 68 82 82 74
-4.19432 -6.75957 -1.69037 96 96 95 75
-4.37532 -7.38757 -0.40637 164 172 172 172
-4.69032 -7.87857 -0.17137 155 253 253 253
-4.19332 -6.67957 -0.80337 110 130 130 128
-4.90132 -7.95557 -1.68037 67 211 203 168
-4.43432 -7.88657 -0.74137 20 24 25 14
-4.08632 -7.38157 -1.68837 101 76 76 64
-3.99232 -6.33457 -1.70037 99 96 92 80
-3.78532 -6.38757 -1.02537 105 4 4 4
-3.62732 -6.33757 -1.69837 88 46 46 46
-3.95732 -6.90857 -1.05737 109 119 119 119
-3.79932 -7.53357 -1.18337 100 96 96 94
-4.20032 -6.61857 -1.68837 83 104 104 92
-3.68732 -7.09757 -1.68737 108 48 46 45
-3.57032 -7.42457 -1.69037 130 44 42 43
-4.96832 -7.52257 -1.68237 61 240 237 205
-4.23332 -7.59657 -0.76137 132 141 143 142
-3.63132 -6.19557 -1.20637 58 80 81 75
-4.31832 -7.10057 -0.59337 142 152 152 150
-4.04732 -7.73457 -1.00337 91 103 103 101
-4.20032 -8.23557 -1.68337 100 92 92 84
-4.03932 -6.34757 -0.73237 111 10 10 8
-4.12232 -6.25857 -0.80437 114 127 127 124
-4.90432 -8.16857 -1.67737 86 193 186 158
-4.83132 -8.09457 -1.68437 103 181 174 154
-4.20732 -6.47157 -0.67237 135 146 147 142
-4.19332 -8.26157 -1.06037 174 175 178 158
-4.00732 -7.66957 -1.03737 100 124 124 122
-4.47932 -6.54657 -1.68737 106 158 152 128
-4.09332 -6.86857 -0.91337 120 137 134 125
-4.34332 -7.45157 -1.68437 65 181 177 148
-4.20632 -8.02657 -1.69037 106 86 82 71
-4.48432 -7.67057 -1.68037 58 186 185 160
-4.90032 -7.73757 -1.68037 96 177 170 144
-3.35532 -6.12457 -0.67037 148 53 54 40
-4.62632 -6.19457 -1.68537 89 140 133 115
-4.19532 -8.15757 -1.68037 94 96 93 81
-4.25432 -7.25057 -0.73237 148 144 145 140
-4.20332 -7.67357 -1.68437 95 97 93 81
-4.97232 -7.81057 -1.68037 97 177 165 142
-4.69932 -6.89957 -1.68437 54 208 198 165
-4.32932 -6.04957 -0.24437 152 179 179 178
-4.24232 -8.23157 -0.79037 119 130 130 128
-4.01132 -7.74257 -1.03037 120 122 122 121
-4.13232 -7.52557 -1.68537 119 82 82 73
-4.75832 -7.17857 -1.68237 77 174 169 146
-3.84632 -6.33657 -1.08437 85 106 107 102
-3.99732 -6.68957 -1.69537 108 89 87 74
-3.76432 -7.17357 -1.20837 62 107 108 101
-3.57332 -7.03557 -1.29037 45 57 56 56
-4.41032 -7.52357 -1.68237 82 124 126 104
-3.58832 -7.34557 -1.69037 88 44 43 41
-4.70132 -7.94757 -1.67937 78 141 140 118
-3.72032 -6.75557 -1.69037 100 48 46 44
-4.05232 -7.18157 -1.70037 130 74 73 56
-4.13432 -6.67757 -1.68837 59 131 128 105
-3.49332 -6.06357 -0.17137 169 54 50 44
-4.83932 -7.10057 -1.68737 86 170 158 132
-3.50032 -6.90157 -1.69337 131 32 29 26
-4.48732 -6.39957 -1.69037 74 184 182 152
-4.19332 -7.10557 -0.80337 133 140 140 134
-3.99332 -7.46057 -1.69237 111 84 82 69
-3.75832 -6.62857 -1.20137 36 73 74 68
-3.97632 -7.32957 -1.68837 91 82 75 59
-4.12832 -6.40857 -0.80437 112 140 140 138
-4.30032 -8.23057 -0.68337 118 136 136 133
-3.50332 -6.12957 -1.69037 74 45 44 42
-3.80232 -8.02857 -1.38437 7 78 75 68
-3.42532 -6.19657 -0.88237 159 41 43 29
-4.15132 -8.09257 -0.90337 115 117 118 113
-3.59132 -7.98057 -1.54737 107 54 54 54
-4.27532 -6.47357 -1.68837 93 175 171 142
-3.66432 -8.08557 -1.69037 115 43 42 38
-3.47732 -6.39857 -1.26737 38 68 65 58
-3.63632 -7.87257 -1.26937 60 81 77 74
-4.08332 -7.73357 -0.96437 120 129 130 126
-4.19432 -7.17257 -0.80237 120 140 141 131
-4.22832 -6.38757 -1.68737 87 135 129 113
-3.95032 -6.59657 -1.05237 116 120 121 113
-4.27032 -7.03657 -1.68537 104 115 114 99
-4.14132 -7.46157 -0.88337 109 131 130 127
-3.95332 -6.82557 -1.05337 119 117 117 115
-3.99032 -6.05257 -1.70237 107 22 20 5
-4.25632 -7.66157 -0.73237 133 146 146 141
-4.35532 -6.53657 -0.32037 127 189 194 186
-4.03032 -6.11757 -0.91837 102 112 114 111
-4.36732 -8.23357 -0.54137 150 161 161 160
-3.92232 -7.24857 -1.68837 78 112 109 90
-3.98432 -6.28357 -0.66337 133 11 11 10
-4.01332 -6.30957 -0.67937 137 7 7 7
-3.76932 -8.22757 -1.21337 65 65 64 60
-3.36332 -7.74357 -1.68337 65 55 55 53
-3.35132 -7.37957 -1.68437 118 47 46 47
-4.68932 -7.67057 -1.68237 87 144 143 116
-4.07632 -7.38757 -0.95737 102 113 113 110
-4.10632 -7.10657 -0.91837 108 128 129 122
-4.48732 -6.86257 -1.69037 111 123 118 99
-4.15632 -6.29957 -0.31937 149 13 12 11
-4.28332 -7.87357 -1.69037 114 97 99 84
-3.36032 -8.02457 -1.68237 91 43 38 40
-3.99532 -6.39857 -0.94637 127 25 24 19
-3.99332 -8.02757 -1.68837 80 84 80 64
-4.69632 -7.80157 -1.68037 91 146 143 121
-3.43532 -6.15957 -0.76037 160 48 49 33
-4.09532 -6.60857 -0.91337 85 119 120 114
-3.91832 -8.16057 -1.68537 94 70 70 58
-4.07732 -7.45757 -0.95637 106 112 113 108
-3.70532 -6.68857 -1.23237 62 89 90 85
-3.34732 -6.75057 -1.68537 97 40 41 36
-3.43932 -6.87257 -1.31837 39 89 85 67
-3.57132 -6.08857 -0.32037 159 51 48 41
-3.56932 -6.11557 -1.23237 62 74 74 62
-4.30732 -7.60157 -0.63437 146 147 148 144
-4.09932 -7.03857 -0.91937 120 133 133 124
-3.70632 -7.31957 -1.68537 105 46 45 43
-4.02632 -6.63257 -0.99637 110 127 124 115
-4.62532 -7.17157 -1.68437 59 179 171 144
-3.99532 -6.18657 -0.95137 100 112 112 110
-4.08532 -7.45457 -1.68737 91 77 75 62
-3.84832 -6.74957 -1.69037 108 79 77 65
-4.62532 -7.30957 -1.68337 81 130 132 120
-4.37632 -6.59157 -0.26237 168 178 179 174
-3.50132 -8.22557 -1.68237 97 46 42 42
-4.06332 -7.73457 -1.69237 109 86 83 74
-4.40632 -6.68257 -0.17137 103 151 151 151
-4.48632 -6.55257 -1.69037 94 154 148 126
-3.83432 -6.82457 -1.14437 85 105 106 101
-4.04832 -7.95057 -1.01137 112 127 127 127
-4.48132 -6.04957 -1.69037 95 150 141 125
-3.98232 -8.08757 -1.07637 97 108 110 106
-4.02432 -6.29757 -0.62437 153 11 11 9
-3.42632 -7.80257 -1.68437 85 48 45 45
-4.26632 -8.01657 -0.73837 108 123 124 116
-4.12332 -6.53857 -1.68837 100 96 95 77
-4.35832 -6.52957 -0.25337 142 173 176 167
-4.27832 -6.53657 -1.69037 102 137 132 117
-4.33432 -7.80557 -0.59137 113 132 132 132
-4.13332 -8.16557 -1.02437 152 93 92 90
-3.92832 -6.17457 -0.24137 146 42 40 35
-4.91132 -7.46157 -1.68237 82 178 169 144
-4.20732 -7.67057 -0.81237 153 142 142 140
-4.39032 -6.61957 -0.24037 115 204 205 190
-3.43132 -6.07457 -0.38737 139 44 45 39
-3.88332 -7.23957 -1.12137 106 107 108 102
-4.35932 -7.03357 -0.45737 147 165 165 166
-3.71032 -6.26357 -1.69237 71 46 45 40
-3.40232 -6.15357 -0.77637 162 47 49 36
-4.41632 -6.46957 -1.69037 85 127 124 112
-4.26832 -6.32657 -0.52937 158 157 157 152
-3.57132 -6.61957 -1.68537 105 40 29 17
-3.55432 -6.28457 -1.01037 112 20 20 16
-3.56632 -6.40257 -1.23637 56 82 79 72
-3.71232 -7.38257 -1.23737 68 91 90 88
-3.52732 -6.08757 -0.37537 155 49 52 35
-4.62832 -7.66457 -1.68237 62 171 168 139
-4.20832 -6.22457 -1.68837 98 140 134 116
-3.49932 -6.95357 -1.69337 114 56 53 48
-4.48132 -6.12157 -1.69037 108 150 148 130
-4.07532 -6.38957 -0.74837 147 18 18 15
-4.05832 -7.95457 -1.69337 112 66 66 55
-3.85632 -6.96157 -1.68837 105 78 75 65
-3.42132 -6.47757 -1.68737 79 43 41 41
-3.71132 -7.74157 -1.23637 78 88 84 83
-3.44132 -6.60357 -1.31837 22 92 94 81
-3.85232 -7.52857 -1.69037 105 59 58 53
-4.35632 -7.95157 -0.53237 108 140 142 138
-3.63332 -6.35157 -1.07137 115 10 10 8
-4.56932 -6.19757 -1.69837 119 127 126 101
-3.85132 -6.89457 -1.68837 114 78 78 69
-4.31632 -6.32757 -0.37837 117 157 157 156
-4.75932 -7.60357 -1.68237 95 194 188 159
-3.91332 -6.39757 -1.69237 81 89 89 76
-4.06332 -7.94457 -1.23437 123 177 179 171
-3.99732 -7.80857 -1.69037 107 84 86 75
-3.71432 -7.10157 -1.23137 75 90 91 86
-4.41432 -7.45257 -1.68337 85 132 129 109
-3.84432 -7.17857 -1.14937 93 105 106 101
-4.14432 -6.53657 -0.81537 112 159 162 151
-4.83132 -6.25657 -1.68537 93 181 174 146
-4.06432 -6.89357 -0.95037 61 154 153 145
-3.76832 -6.26457 -1.69337 85 72 72 64
-3.84432 -6.39957 -1.08637 72 93 93 89
-4.11632 -6.55657 -0.87137 116 134 135 133
-3.99532 -7.81257 -1.68737 110 84 86 75
-4.37932 -7.25857 -0.43437 140 164 159 154
-3.64432 -6.32657 -1.02637 140 14 15 9
-4.21732 -6.25757 -0.61137 118 48 45 45
-3.70632 -8.02357 -1.69037 121 45 41 39
-3.78032 -6.12757 -1.69537 107 70 71 57
-4.55132 -7.86657 -0.19537 58 209 211 199
-4.30832 -7.73857 -0.64237 137 143 143 141
-4.30732 -6.42757 -0.42537 144 165 165 163
-4.13932 -8.16457 -1.09137 29 56 55 52
-4.05432 -8.08857 -1.01137 111 119 120 118
-3.63232 -8.02557 -1.69337 107 44 43 41
-4.39632 -8.08657 -0.45137 171 171 171 169
-3.98632 -7.95357 -1.22837 127 83 86 79
-4.20532 -6.32957 -0.67037 143 147 147 147
-4.07432 -7.04857 -1.68837 73 118 111 93
-4.23032 -7.17257 -0.75837 114 145 142 136
-3.99232 -6.68057 -1.03337 79 155 153 147
-4.40932 -7.59257 -0.32237 107 157 158 148
-4.49032 -7.94057 -0.17837 44 219 217 209
-3.76732 -6.14257 -0.45337 158 37 35 23
-3.49732 -7.52557 -1.31137 40 41 41 32
-3.92332 -8.08857 -1.69037 91 68 67 62
-3.43332 -6.26557 -1.26037 130 7 7 7
-3.55332 -7.99157 -1.56537 68 46 44 45
-4.20632 -6.39557 -0.53037 124 100 101 93
-3.92432 -6.18957 -1.02037 113 117 118 112
-4.26332 -6.18957 -0.53037 157 157 158 154
-4.23732 -8.07757 -0.79337 60 170 171 160
-3.89432 -7.60357 -1.12637 103 111 110 106
-4.41432 -7.73157 -1.68237 110 138 136 111
-4.40432 -6.40357 -1.68737 68 180 171 143
-3.92732 -7.30957 -1.68837 118 77 75 62
-4.48532 -8.16257 -1.68537 79 180 175 146
-3.56532 -7.60457 -1.29537 65 85 85 73
-4.42632 -8.22657 -0.32337 142 165 165 165
-3.75932 -6.29657 -0.91737 104 13 13 13
-3.91932 -6.55457 -1.68837 116 108 93 78
-3.49532 -6.24657 -0.95437 140 31 33 21
-3.64532 -7.25357 -1.69037 130 45 44 41
-4.34432 -7.02957 -1.68437 99 122 123 105
-3.65332 -6.67757 -1.25537 69 86 87 81
-4.30432 -6.76457 -0.55937 135 144 145 140
-4.34532 -6.46557 -1.69337 106 138 135 119
-3.99132 -7.73957 -1.68837 101 86 84 71
-3.85132 -6.14557 -0.31637 159 44 42 32
-4.41232 -7.80657 -0.31537 121 146 149 132
-4.05532 -8.02357 -1.69337 115 66 66 58
-4.83332 -6.18757 -1.68437 99 174 168 144
-4.99332 -7.34657 -1.69037 120 163 157 131
-4.24132 -6.36357 -0.31137 83 13 13 13
-3.70732 -7.52457 -1.23237 63 69 70 67
-4.33932 -6.05557 -1.68837 100 143 136 119
-3.50332 -7.25357 -1.31837 51 53 51 38
-3.84632 -6.05557 -1.07937 86 106 107 103
-4.22832 -7.96557 -1.69037 105 89 87 74
-3.70332 -6.13857 -0.52437 151 39 41 30
-4.24932 -6.97457 -0.72337 139 142 142 140
-3.57532 -6.26657 -1.23137 46 77 74 68
-3.92132 -6.11857 -1.02437 97 116 116 114
-3.56132 -6.90157 -1.29237 68 74 75 70
-4.12432 -6.82257 -0.88037 105 138 137 132
-4.76332 -7.80457 -1.67937 90 166 167 136
-4.03432 -6.68357 -0.99437 87 112 112 109
-4.96432 -8.09157 -1.68337 90 178 171 145
-4.83532 -6.27857 -1.69037 100 171 165 138
-3.56832 -7.38757 -1.68837 84 45 44 40
-3.42332 -6.42257 -1.21637 107 1 1 1
-4.07932 -6.30057 -0.53837 146 14 14 14
-4.46932 -6.34457 -1.68837 108 129 125 109
-4.24932 -6.40357 -0.58537 144 151 150 146
-4.61132 -7.87457 -0.24837 147 209 208 189
-3.65832 -6.47357 -1.69037 105 47 48 43
-4.10532 -7.45857 -0.93637 116 129 130 125
-3.84832 -6.62057 -1.68837 75 82 82 69
-4.82232 -6.54157 -1.68537 108 154 148 127
-3.56632 -6.25157 -1.68837 85 45 44 39
-4.43032 -8.01457 -0.24937 121 170 172 164
-4.34432 -6.54157 -1.68837 65 188 183 152
-3.91632 -8.18557 -1.69037 111 70 68 56
-4.01332 -6.17657 -0.91337 127 10 10 8
-4.07332 -7.96457 -1.31037 169 164 162 163
-4.33732 -7.51957 -1.68237 85 120 118 103
-4.06732 -6.25457 -0.39037 145 22 21 21
-4.38832 -7.81757 -0.44437 168 164 164 162
-3.77432 -6.40357 -1.69037 99 65 66 60
-4.88332 -6.46157 -1.69037 98 175 164 144
-3.99732 -7.59657 -1.69337 110 80 78 66
-3.70932 -6.88457 -1.69837 133 47 43 40
-4.25432 -7.39557 -0.73237 61 173 175 160
-3.92132 -6.13257 -1.69237 76 88 88 76
-3.78532 -6.75557 -1.69037 115 53 52 47
-3.71032 -6.19257 -1.16537 78 91 92 86
-3.91532 -6.19457 -0.45937 141 27 29 17
-3.84532 -6.39257 -1.69037 93 83 81 68
-4.13832 -7.11057 -1.68437 78 132 127 105
-4.09232 -6.33057 -0.82537 121 45 44 36
-4.13032 -8.16257 -1.16237 64 69 64 52
-3.79432 -6.32557 -1.10237 118 12 13 8
-4.34432 -6.47657 -0.24937 126 165 167 164
-3.57332 -6.95757 -1.68537 111 45 41 38
-4.24932 -6.32657 -0.58237 148 150 148 143
-4.16932 -6.04457 -0.72337 139 145 147 144
-3.51032 -6.62257 -1.68537 98 32 26 14
-3.96132 -6.10757 -0.98937 115 121 121 119
-3.58132 -6.45257 -1.19037 127 1 1 1
-4.07732 -7.31757 -1.68837 131 77 79 65
-3.71132 -7.17457 -1.23437 97 95 94 89
-3.57432 -7.94757 -1.58637 13 43 43 43
-3.96132 -6.39657 -0.99637 109 122 123 118
-3.78132 -6.88257 -1.69337 125 54 50 47
-4.21032 -7.94457 -0.81837 100 104 105 89
-3.77532 -7.17057 -1.68837 86 66 61 50
-4.55932 -7.87257 -1.68037 98 112 110 92
-3.43032 -6.05657 -1.26037 113 18 19 14
-4.83032 -6.96257 -1.68237 81 191 182 151
-3.36132 -7.31257 -1.68437 93 58 58 55
-4.04732 -7.81257 -1.00737 106 125 126 121
-4.90432 -6.89657 -1.68337 81 172 166 138
-3.42532 -6.40957 -1.68837 100 44 43 40
-3.63132 -6.05557 -1.20637 64 81 82 76
-3.76832 -6.96957 -1.69037 109 47 46 42
-4.68932 -7.99957 -0.29537 73 154 157 149
-4.09732 -6.63757 -0.92937 112 131 132 125
-3.43732 -6.54257 -1.29737 16 109 107 95
-3.77432 -7.66157 -1.69037 120 45 44 40
-3.75832 -7.11057 -1.21137 85 93 94 89
-3.57032 -7.31457 -1.29737 40 76 75 71
-3.79132 -6.60857 -1.17237 80 108 106 97
-4.35532 -6.96957 -0.46237 152 165 166 161
-3.64532 -6.82257 -1.24637 61 83 84 79
-3.75832 -7.45857 -1.20637 73 94 94 92
-3.78732 -6.22957 -0.74637 114 18 18 16
-3.78132 -6.18757 -1.69237 91 69 69 58
-4.13232 -8.01257 -1.68437 68 103 105 86
-3.56332 -6.14557 -0.66937 139 38 39 33
-4.84332 -6.61157 -1.69037 89 173 167 143
-3.51132 -8.01857 -1.31337 25 71 74 57
-4.39932 -6.75057 -1.69337 118 111 104 85
-3.56132 -6.89257 -1.69337 114 42 42 40
-4.88832 -6.40457 -1.68737 91 171 161 136
-3.92432 -7.10957 -1.69237 122 88 85 70
-3.78032 -8.23357 -1.68537 104 47 43 44
-4.41832 -6.12457 -1.68537 102 139 132 114
-3.50032 -6.09557 -0.46437 129 44 44 36
-3.44232 -6.98057 -1.69037 91 41 40 38
-3.85132 -7.80557 -1.16037 96 103 101 97
-3.71732 -8.02657 -1.68537 92 44 42 37
-4.44332 -6.68557 -1.68837 73 174 169 138
-4.62532 -7.38357 -1.68337 77 116 110 95
-3.69132 -7.74057 -1.69037 113 44 43 39
-4.83532 -8.16357 -1.68037 59 216 204 170
-3.64332 -7.67957 -1.68437 91 51 49 48
-4.68932 -7.59457 -1.68237 89 138 141 114
-4.40932 -7.73457 -0.31937 148 175 177 165
-4.16232 -6.29757 -0.25937 132 17 17 15
-3.80732 -8.23157 -1.19337 55 66 66 58
-3.64432 -6.54157 -1.68837 85 49 50 45
-4.28232 -6.06357 -1.68837 104 154 151 131
-3.86532 -6.26657 -1.05237 126 7 7 7
-3.80132 -7.59757 -1.18537 95 101 101 101
-3.99532 -7.52857 -1.69237 122 81 79 64
-3.56132 -7.17457 -1.68537 97 46 41 41
-3.84532 -7.81557 -1.69037 102 57 55 50
-4.48932 -7.93957 -0.63337 49 143 145 137
-4.67532 -7.37457 -1.69037 105 107 103 81
-3.42732 -8.09357 -1.68437 70 58 57 56
-3.71632 -6.67857 -1.69037 122 46 46 39
-3.63732 -6.54657 -1.22937 70 78 77 72
-4.39632 -6.61057 -0.17237 153 182 184 180
-4.84032 -6.32557 -1.69337 100 167 157 131
-3.43132 -6.74157 -1.69037 124 42 41 39
-4.13932 -6.04957 -0.74337 127 56 54 39
-3.98032 -7.18357 -1.68837 112 83 83 71
-4.13932 -7.31157 -1.68437 107 86 88 76
-4.38932 -7.10857 -0.31237 89 202 204 195
-4.34632 -8.23457 -0.60137 167 152 152 152
-3.70332 -6.61757 -1.22437 62 86 87 82
-4.55732 -6.26357 -1.69037 121 134 127 112
-4.62132 -7.87157 -0.16837 125 252 252 251
-3.57632 -8.16557 -1.29337 58 62 63 53
-3.49532 -6.18857 -1.69237 81 42 43 39
-4.43832 -8.08657 -0.17737 114 177 178 180
-3.65032 -6.32957 -1.18537 121 11 11 9
-4.10832 -7.39157 -0.92737 29 146 147 142
-4.19232 -8.15757 -0.86237 131 143 143 142
-4.68732 -8.23657 -1.67737 80 146 141 121
-4.35532 -7.81257 -0.53037 95 160 160 158
-4.09432 -6.78257 -0.91037 120 133 133 131
-3.99432 -6.26057 -1.70037 92 89 91 74
-4.55032 -6.97557 -1.68337 88 157 152 132
-3.70432 -6.40557 -1.16037 114 10 10 8
-4.36132 -8.01557 -0.53237 120 148 148 148
-4.17532 -6.36257 -0.52937 132 12 12 12
-4.23132 -6.43757 -0.54837 121 27 29 21
-4.41732 -7.73757 -0.25137 160 179 181 170
-4.33732 -7.64457 -1.69037 100 114 116 95
-3.56532 -6.75657 -1.68737 107 50 45 42
-3.35332 -6.53557 -1.68537 91 63 63 58
-3.57432 -7.59257 -1.68537 85 61 55 45
-4.28432 -7.52457 -0.67237 154 146 148 137
-4.14432 -7.73857 -0.89137 140 139 140 135
-3.94932 -6.04557 -0.97837 118 14 14 12
-3.70332 -7.38357 -1.69837 122 43 42 38
-4.38832 -6.82757 -0.23937 170 181 184 177
-4.59832 -7.10257 -1.69037 85 137 131 113
-3.43332 -6.11157 -0.59337 120 44 45 38
-4.14132 -8.15857 -1.68037 58 133 127 107
-3.74432 -6.59657 -1.19637 78 98 94 83
-3.64532 -6.96557 -1.69037 122 47 43 40
-3.33932 -6.80757 -1.69037 111 40 40 38
-4.76932 -7.45257 -1.68037 64 161 155 139
-3.99032 -6.46857 -0.95437 17 129 126 100
-3.51532 -7.98957 -1.44737 26 110 107 98
-4.56232 -6.11757 -1.69537 109 140 137 118
-4.27732 -6.27257 -1.69237 93 132 129 112
-4.33732 -8.23557 -1.68037 97 136 134 115
-4.35632 -6.82157 -0.38837 153 172 173 168
-4.13432 -7.18057 -1.68437 96 93 91 79
-4.39032 -7.94757 -0.44537 109 158 158 157
-3.49232 -7.03657 -1.69237 110 35 35 33
-4.29232 -6.52857 -0.53137 122 149 149 147
-4.11432 -7.52957 -0.92737 83 113 114 108
-3.57332 -6.53257 -1.24737 78 77 73 62
-3.50332 -6.11757 -0.59837 122 40 41 35
-4.03832 -6.28357 -0.58637 145 12 12 10
-5.12532 -8.22457 -1.68437 63 158 153 125
-4.06532 -6.82057 -1.69337 123 85 83 70
-4.17032 -7.67357 -0.86637 119 137 138 130
-3.76232 -6.40857 -1.14437 81 84 85 79
-4.54832 -8.00557 -0.79437 35 160 162 158
-4.77032 -8.08457 -1.68037 70 208 202 175
-4.33832 -6.47657 -1.68837 85 140 137 121
-3.65532 -8.02157 -1.26237 59 61 61 59
-4.90132 -7.38257 -1.68237 60 214 206 175
-3.77932 -6.55257 -1.68837 71 58 58 50
-4.34032 -6.32657 -0.17737 179 186 189 183
-4.20532 -6.25657 -1.68837 101 127 125 105
-3.71632 -7.09857 -1.69337 132 46 45 43
-4.33932 -6.05857 -1.69037 82 187 180 154
-4.31832 -8.01757 -0.66037 67 157 159 156
-4.32232 -7.82057 -0.64637 73 123 124 118
-3.78432 -7.88157 -1.68737 62 59 51 43
-3.99532 -6.32657 -0.74337 134 10 10 8
-3.84932 -6.33157 -1.69537 99 84 85 71
-4.35932 -7.10857 -0.46437 161 162 162 160
-3.71232 -6.04957 -1.16237 69 91 91 90
-4.62732 -8.08657 -1.68337 70 181 177 152
-4.13232 -7.10857 -0.88237 108 137 136 131
-3.92232 -6.97457 -1.68837 86 116 112 92
-3.42132 -7.60157 -1.68337 68 41 41 41
-4.30832 -6.75257 -0.57437 118 137 138 133
-4.03932 -6.39657 -0.91737 126 130 129 126
-3.41732 -6.40357 -1.28737 19 78 79 63
-3.92232 -7.52157 -1.68737 95 78 76 64
-3.85332 -7.03157 -1.68837 97 87 85 72
-4.37532 -7.95357 -0.48137 146 160 161 156
-4.19832 -8.01957 -1.68737 101 78 74 63
-3.57132 -7.31057 -1.68537 99 46 43 44
-4.05732 -7.38157 -1.69237 83 107 103 88
-3.35832 -6.32057 -1.70037 107 33 34 29
-3.61932 -7.52057 -1.27037 61 77 72 69
-4.62032 -7.99057 -0.29537 60 132 132 127
-3.56332 -6.12457 -0.59837 141 40 41 33
-4.19832 -6.33957 -0.38737 95 15 15 15
-3.65632 -7.32357 -1.69037 118 45 43 40
-3.96932 -7.45357 -1.06537 100 113 113 111
-4.35532 -7.03157 -1.69037 77 127 126 105
-4.23932 -8.01857 -0.78337 122 117 119 108
-4.32032 -8.09657 -0.65337 116 133 134 131
-4.27032 -6.40357 -0.52537 110 145 144 144
-3.83932 -7.10357 -1.68737 98 48 45 37
-3.92432 -7.89457 -1.17537 159 59 59 59
-4.97532 -7.04257 -1.68237 96 183 172 142
-4.83532 -7.87557 -1.68337 76 192 182 157
-4.27532 -7.67157 -1.68437 65 176 170 142
-4.06432 -8.23457 -1.69237 77 116 114 90
-3.56332 -8.22657 -1.68337 86 42 40 41
-4.27832 -6.26657 -0.46237 128 13 13 11
-4.11932 -8.09457 -0.94237 108 133 134 130
-3.65632 -7.17657 -1.26037 82 92 89 85
-3.85132 -7.46057 -1.68837 82 88 83 69
-4.48432 -7.87757 -0.66337 122 119 119 106
-3.65032 -6.91157 -1.68437 100 46 42 41
-4.27832 -7.17957 -0.67637 127 146 145 133
-4.42932 -6.33257 -1.69837 89 151 147 117
-4.05632 -7.93857 -1.35937 64 95 94 89
-3.92632 -7.80057 -1.10737 114 113 112 109
-3.92232 -7.46057 -1.68837 104 78 78 66
-3.85032 -6.81657 -1.69037 83 80 80 70
-4.42732 -7.80557 -0.18137 145 188 188 186
-3.98732 -6.18657 -1.69837 87 90 90 78
-4.47332 -7.86557 -0.74337 138 139 136 121
-4.13332 -6.96857 -1.68537 104 90 91 77
-4.41032 -7.31657 -1.68337 101 116 118 97
-4.30632 -6.19757 -0.32937 124 18 19 15
-4.10732 -6.04557 -1.68437 80 95 98 81
-4.19432 -7.52457 -1.68437 107 91 88 72
-4.59132 -7.99857 -0.69637 109 249 252 248
-4.09732 -6.41657 -0.84937 114 138 137 133
-4.39732 -7.94457 -0.62637 33 140 141 136
-3.79232 -6.15757 -0.46737 151 41 40 29
-4.13232 -6.73957 -1.69337 105 96 92 83
-4.34632 -7.73457 -1.68337 108 121 115 102
-3.54932 -6.15457 -0.71437 133 41 42 37
-4.48032 -7.45957 -1.68337 93 134 132 115
-4.30132 -8.17057 -0.68237 127 137 137 135
-3.36532 -6.68157 -1.68537 121 50 47 32
-3.71332 -7.52557 -1.68537 111 47 47 47
-4.05932 -7.45857 -1.69337 116 80 78 66
-3.83432 -6.20757 -0.67037 128 18 18 16
-4.08232 -7.11257 -1.68837 68 108 107 86
-3.99532 -6.24757 -0.53237 140 15 15 13
-4.09932 -8.18157 -1.69037 114 83 79 67
-4.23532 -7.66357 -0.76437 66 172 170 158
-4.03732 -6.21357 -0.24037 97 30 31 26
-4.06832 -7.03357 -0.95237 98 115 116 111
-4.48732 -7.94757 -1.68237 71 176 168 145
-4.37932 -7.32957 -0.44537 150 169 168 164
-3.77732 -6.68457 -1.68837 107 56 53 48
-4.55732 -7.30957 -1.68237 78 120 124 101
-4.02932 -7.17857 -1.00237 96 122 122 120
-4.30532 -7.09457 -0.60937 131 150 150 146
-3.49632 -7.53357 -1.69037 112 39 36 37
-4.61832 -6.27257 -1.69337 105 132 127 108
-4.33832 -6.75757 -1.68737 89 131 130 113
-3.36032 -7.17057 -1.68437 86 41 41 41
-4.36632 -7.52257 -0.46237 80 162 163 158
-4.05232 -6.26557 -1.70237 78 89 92 75
-4.14632 -7.80557 -0.89537 118 132 133 127
-3.50032 -7.80857 -1.31337 45 50 52 38
-4.17632 -6.29057 -0.16437 87 22 22 22
-4.06432 -6.69057 -1.69337 98 86 86 72
-3.95932 -7.18657 -1.06737 94 118 114 110
-4.38232 -6.61857 -0.31137 164 171 173 170
-3.84532 -6.19157 -1.08237 85 107 108 103
-4.37632 -7.46357 -0.41437 160 170 170 162
-4.54932 -6.68657 -1.68737 84 134 129 111
-4.30732 -7.37057 -0.63737 120 131 130 127
-3.35532 -6.09657 -0.54037 126 47 48 42
-4.24632 -6.10957 -0.57737 152 157 158 150
-3.94032 -8.15757 -1.10437 103 98 98 94
-3.41732 -6.74957 -1.33937 20 52 54 43
-4.01632 -6.44157 -0.89437 104 27 27 25
-3.56632 -7.45957 -1.68537 94 44 43 41
-3.95932 -7.24357 -1.06737 95 117 117 112
-4.37932 -7.59857 -0.44337 72 190 189 174
-4.23432 -7.45957 -0.75037 127 146 145 143
-3.51332 -7.87457 -1.51437 29 46 38 30
-3.91532 -7.40257 -1.68837 100 84 80 71
-3.56832 -7.86657 -1.68437 87 33 32 30
-3.93632 -7.88857 -1.22937 22 58 55 49
-4.33532 -6.89857 -1.68537 90 137 135 118
-3.99532 -7.24757 -1.69537 114 81 79 67
-3.77232 -8.01657 -1.21137 68 91 91 89
-4.20632 -6.04657 -1.69037 73 138 141 127
-3.64432 -6.88357 -1.69837 131 43 42 40
-4.19432 -6.32957 -1.70037 108 123 120 101
-3.43532 -6.61957 -1.68837 94 44 43 41
-4.20332 -6.33057 -0.31937 124 15 15 15
-3.56232 -7.52957 -1.29037 58 72 69 63
-3.70432 -6.39757 -1.68837 72 52 48 45
-4.62032 -8.00357 -0.18737 111 251 249 250
-4.55332 -7.45357 -1.68437 111 135 134 118
-4.62532 -8.16457 -1.68237 100 135 129 112
-4.04432 -7.46057 -0.99737 104 102 103 98
-3.57432 -7.24457 -1.29537 63 80 77 70
-4.05532 -6.27857 -0.52837 134 11 11 9
-4.90532 -7.35357 -1.69037 101 149 144 125
-3.92232 -7.02957 -1.69037 93 91 89 75
-4.37232 -7.25557 -0.39337 168 167 167 165
-3.78232 -6.47557 -1.69337 99 66 66 58
-3.35932 -8.23557 -1.68237 93 37 35 37
-4.37832 -7.51257 -0.44237 148 165 165 159
-3.52132 -8.03057 -1.69037 114 14 14 14
-3.37632 -6.66957 -1.69037 118 44 40 37
-4.57832 -7.25157 -1.69037 114 136 131 113
-3.92432 -6.32857 -1.02337 89 102 102 92
-3.86032 -6.37957 -0.96437 122 7 7 7
-3.88732 -6.22557 -0.63537 110 20 21 17
-3.38732 -7.90357 -1.69037 86 55 54 52
-4.28132 -6.39257 -0.17937 120 9 9 9
-4.78632 -6.02757 -1.69037 93 162 157 128
-3.70632 -8.08657 -1.68337 103 44 43 41
-4.39832 -7.38857 -0.32037 145 174 175 169
-3.81132 -8.09457 -1.69037 112 49 44 39
-4.54032 -6.12657 -1.68837 88 127 127 108
-3.71232 -6.04757 -1.69037 99 43 44 38
-3.57732 -8.01657 -1.28837 55 59 59 57
-4.43532 -8.01257 -0.17837 132 164 167 158
-4.13932 -7.52257 -0.89237 42 133 133 131
-3.76432 -6.97057 -1.20337 51 81 82 77
-4.27332 -6.40657 -1.69337 97 133 127 118
-4.40932 -7.25057 -0.17837 177 180 178 164
-3.88932 -7.52857 -1.12737 95 112 107 102
-3.84432 -6.19957 -0.59237 161 17 18 13
-4.95632 -8.23757 -1.68037 85 186 176 152
-4.41232 -6.53657 -1.68737 81 139 134 120
-4.33832 -8.01357 -1.68037 93 138 137 120
-3.84832 -6.47657 -1.08837 96 107 107 97
-4.39532 -7.24957 -0.31237 131 160 161 156
-3.94832 -6.33257 -0.98437 107 10 10 10
-3.50332 -6.68357 -1.31337 71 71 72 64
-4.57332 -7.98657 -0.27337 38 204 202 203
-4.37832 -7.37557 -0.44837 144 164 165 160
-3.78432 -7.03057 -1.69037 115 47 46 44
-4.75332 -6.60557 -1.69037 91 168 161 135
-4.40732 -7.10757 -0.17237 155 182 182 182
-4.62432 -6.72657 -1.69037 71 131 124 106
-4.59132 -7.96157 -0.67237 13 207 205 196
-4.83232 -6.39857 -1.68537 91 171 166 134
-4.34032 -6.82757 -0.45437 108 195 194 184
-4.60432 -6.06657 -1.69237 88 125 122 105
-3.91832 -7.95857 -1.69037 115 61 58 51
-4.34932 -6.25657 -1.68837 78 137 132 114
-3.43132 -6.12557 -1.28237 15 134 133 121
-4.33732 -8.14757 -1.67937 102 136 133 119
-4.39532 -8.01857 -0.45237 149 158 160 156
-3.69332 -6.36657 -1.07237 128 6 6 6
-4.28832 -6.12457 -0.39737 114 71 73 56
-4.06432 -8.25057 -1.68837 65 117 115 92
-3.87232 -6.96057 -1.12237 70 94 94 92
-3.62932 -7.03857 -1.69037 115 47 43 42
-4.69832 -7.88457 -1.68037 71 195 186 160
-4.42032 -8.01757 -0.32037 130 152 154 144
-3.71232 -6.15157 -0.58437 118 29 30 25
-4.15532 -8.01857 -0.89237 126 106 106 98
-4.15532 -8.11457 -1.11737 18 32 28 25
-3.36932 -6.38057 -1.18337 130 4 4 4
-4.27832 -6.18957 -0.45437 111 15 15 15
-4.13432 -6.54857 -1.69337 99 96 94 79
-3.79232 -7.87757 -1.19537 74 91 91 91
-3.99432 -7.86757 -1.69537 100 81 81 69
-4.61732 -6.68557 -1.69037 83 124 120 101
-3.57332 -6.68657 -1.69537 110 45 45 42
-3.56432 -6.05257 -1.23137 52 72 73 67
-4.27432 -6.82157 -1.68737 78 170 172 145
-4.35032 -6.89457 -0.46137 153 158 159 154
-4.33832 -7.88157 -0.60037 172 162 166 164
-3.56632 -8.09657 -1.29737 49 68 66 62
-3.62832 -6.25757 -1.20937 50 80 80 75
-3.80032 -7.40857 -1.18037 105 80 82 81
-3.71332 -7.25257 -1.69037 106 46 45 40
-4.20532 -7.87457 -0.82037 110 111 111 103
-3.78132 -6.16957 -0.54037 153 30 30 22
-4.48132 -7.88357 -0.18837 101 252 252 246
-4.09932 -6.97057 -0.92737 9 127 127 125
-3.57032 -6.17557 -0.75537 126 37 38 33
-3.95932 -6.18557 -0.98937 112 121 122 116
-4.12532 -6.62057 -1.68837 97 92 94 81
-3.62932 -7.81257 -1.27237 69 81 79 79
-3.36232 -6.89057 -1.69337 139 41 39 40
-3.57232 -6.47657 -1.23637 54 89 89 77
-3.44032 -6.12557 -1.25937 109 15 16 10
-4.27432 -6.67357 -1.69037 78 185 182 152
-3.96532 -6.32457 -0.98837 111 122 123 115
-4.01232 -8.02557 -1.04237 123 118 120 117
-3.92932 -7.60157 -1.09837 86 95 96 90
-3.85332 -7.94557 -1.16237 67 89 86 82
-3.64132 -7.80957 -1.68537 107 51 47 46
-4.55932 -7.09957 -1.68437 61 189 183 154
-3.54732 -7.89057 -1.57037 11 48 46 48
-4.19232 -7.03357 -0.80137 132 134 135 129
-3.35332 -6.34857 -1.15237 132 6 6 4
-4.37932 -8.03057 -0.50337 166 165 168 166
-3.71032 -6.23957 -0.82937 103 16 16 14
-4.23732 -6.05557 -0.58337 154 154 155 149
-4.77332 -6.34657 -1.68537 77 173 162 144
-3.99332 -6.96157 -1.02437 82 110 110 108
-4.01832 -6.05357 -0.90837 131 12 12 10
-4.14332 -6.30657 -0.39937 141 14 14 12
-3.61232 -8.00057 -1.51437 8 80 78 79
-3.63332 -7.73757 -1.26937 72 78 78 70
-3.80032 -7.81157 -1.18837 88 96 97 92
-3.50632 -6.39957 -1.68837 70 45 44 39
-3.77432 -8.08557 -1.68537 91 43 41 40
-3.36032 -6.82957 -1.68537 110 41 39 40
-4.55532 -7.87857 -0.74637 165 157 159 144
-3.71232 -6.12457 -1.16737 49 99 94 77
-3.99432 -6.96657 -1.69337 123 86 86 73
-4.71432 -6.48757 -1.69037 95 146 135 114
-4.31732 -6.96857 -0.58037 137 154 153 149
-3.58532 -6.58957 -1.26537 68 78 77 73
-4.39532 -7.60457 -0.38037 65 196 195 179
-4.34832 -7.31457 -0.53337 122 143 143 139
-3.92332 -7.16957 -1.68837 104 88 86 73
-3.99832 -7.17157 -1.69837 121 87 87 76
-4.69532 -6.74957 -1.68437 73 149 141 123
-3.59932 -7.23757 -1.69037 106 45 43 41
-3.52432 -6.08657 -0.34937 163 51 49 34
-3.35332 -6.25857 -1.02137 117 15 15 13
-3.42632 -7.52357 -1.68437 81 41 40 36
-4.05432 -6.40457 -1.69837 126 90 87 75
-3.76432 -7.38457 -1.21337 72 95 96 90
-3.50232 -6.47057 -1.23437 120 1 1 1
-4.83832 -7.03057 -1.68337 99 178 167 142
-3.50032 -6.06557 -0.24837 151 50 49 45
-4.34632 -6.82057 -1.68737 76 165 164 131
-4.75732 -7.88257 -1.68037 85 182 177 147
-4.05532 -7.88557 -1.23637 204 169 170 165
-3.43132 -6.22457 -0.94137 103 18 18 16
-3.70632 -8.06557 -1.69037 102 43 42 38
-3.71632 -6.53857 -1.18637 94 96 96 88
-3.85532 -8.09057 -1.68737 97 54 51 44
-4.21832 -6.89257 -0.75837 143 146 145 141
-4.26532 -7.16957 -1.68537 68 180 176 151
-3.46732 -6.34457 -1.27237 26 51 48 41
-4.16132 -6.67757 -0.84137 133 144 145 139
-4.15532 -6.82757 -0.83437 122 127 127 127
-4.20732 -7.74257 -0.81237 73 168 167 154
-4.55832 -7.95357 -0.64937 95 217 220 214
-4.06432 -6.26457 -0.88037 130 135 135 133
-3.63532 -7.86657 -1.68537 107 42 41 39
-4.76532 -8.22757 -1.68037 85 179 173 147
-3.92232 -6.54957 -1.69237 118 108 95 80
-3.98232 -6.34557 -0.79537 99 9 9 9
-4.48232 -7.03757 -1.68437 95 133 131 111
-3.34932 -6.16857 -1.29237 42 46 45 40
-4.51732 -8.01557 -0.78537 127 142 143 138
-4.11832 -8.02357 -0.94537 35 114 114 112
-4.37732 -6.77357 -0.27537 162 177 182 178
-4.40332 -7.92557 -0.72537 21 157 158 143
-4.41332 -7.03957 -1.68537 65 188 184 151
-4.54832 -6.60957 -1.68837 76 192 186 159
-4.06032 -8.24357 -1.03337 90 76 78 67
-4.48732 -6.12257 -1.68737 100 146 145 127
-3.35632 -6.20757 -1.68837 88 62 62 61
-3.71432 -7.03057 -1.22937 61 71 73 68
-3.43332 -6.11857 -1.69037 88 41 41 41
-3.84632 -7.39157 -1.15237 87 106 106 103
-3.62732 -7.89157 -1.52437 34 36 37 32
-4.90332 -6.81757 -1.68537 85 161 163 127
-3.92332 -7.59057 -1.68837 104 82 83 67
-4.28832 -6.05257 -0.39137 122 122 123 114
-3.53232 -8.00157 -1.50837 27 48 47 45
-3.56232 -6.96957 -1.29337 71 75 76 66
-3.71032 -7.46157 -1.69037 107 45 44 42
-3.42332 -6.34357 -1.13637 110 9 9 7
-3.85532 -7.04057 -1.69337 116 80 78 69
-4.09232 -7.53357 -1.68837 111 72 72 61
-3.84832 -7.52657 -1.68537 97 51 50 45
-4.17232 -7.73357 -0.86637 127 135 136 132
-4.40732 -7.17757 -0.18037 68 216 218 210
-4.39032 -7.17857 -0.31237 166 174 175 173
-4.27532 -8.17257 -1.68037 91 125 118 102
-4.34332 -7.95257 -0.59437 140 156 158 157
-3.36132 -6.61457 -1.68537 102 65 64 62
-4.00132 -7.24357 -1.02537 125 120 122 118
-3.35532 -6.18957 -0.88337 142 29 30 24
-3.79532 -6.61557 -1.68837 93 61 62 54
-4.14532 -6.45857 -0.75037 122 1 1 1
-3.50332 -7.17357 -1.68537 113 67 67 60
-4.38132 -8.16457 -0.51637 157 164 165 160
-3.46232 -6.06857 -0.29237 150 49 50 43
-4.69732 -7.87357 -0.24837 176 185 188 172
-4.25132 -8.10957 -1.09537 187 165 164 159
-4.55832 -7.52257 -1.68337 87 189 188 159
-4.08132 -7.94357 -0.97437 114 127 127 125
-3.50432 -7.89657 -1.45037 17 53 46 40
-4.28332 -7.25057 -0.67237 156 147 148 140
-4.05932 -7.80357 -1.69337 100 79 79 71
-3.56732 -6.68157 -1.29537 16 56 56 46
-4.25732 -6.83157 -1.69037 73 159 163 136
-3.71432 -7.95357 -1.23937 21 91 90 81
-4.76132 -7.67557 -1.67937 95 150 146 127
-4.26632 -7.94757 -0.73337 83 146 144 119
-3.99132 -6.26157 -0.59437 140 13 13 10
-4.90432 -7.24057 -1.68237 81 164 158 130
-3.49432 -7.94457 -1.68437 77 61 55 55
-3.87932 -7.17857 -1.12337 103 109 110 105
-3.97732 -8.16157 -1.08237 87 89 91 79
-3.63432 -6.20357 -0.80637 109 27 28 23
-3.99332 -6.23657 -0.46937 140 19 19 15
-4.27332 -6.96257 -1.68537 73 178 171 144
-3.80132 -6.96157 -1.16837 97 95 96 89
-4.62832 -7.74257 -1.68237 97 132 130 110
-4.83532 -7.74157 -1.67937 99 179 175 148
-4.21232 -7.34657 -1.69037 101 97 96 78
-4.91132 -7.03957 -1.68037 100 190 184 154
-3.98632 -6.19357 -0.24937 155 39 34 29
-4.83232 -7.11457 -1.69037 112 169 158 133
-4.20532 -6.96257 -1.68737 109 101 99 84
-4.58432 -7.87357 -0.28437 19 222 225 215
-3.84432 -6.15257 -0.37637 144 45 42 37
-4.75732 -6.54057 -1.68537 93 166 158 137
-4.26932 -7.31957 -1.68537 107 120 120 102
-4.05732 -6.74957 -1.69537 115 82 82 70
-4.18832 -6.61857 -0.79737 76 145 145 146
-4.37732 -6.66057 -0.33637 135 163 164 160
-4.96232 -8.15657 -1.68237 104 171 166 134
-4.28632 -7.11357 -1.69237 93 146 137 111
-3.62432 -6.19157 -1.68837 77 49 48 44
-3.92132 -6.26057 -1.02437 64 134 134 124
-3.95432 -7.96557 -1.27537 60 68 69 53
-3.65132 -7.88357 -1.26437 62 79 78 74
-3.51032 -8.22857 -1.31537 17 53 53 43
-4.05532 -6.89257 -1.69537 69 118 113 89
-3.49132 -6.07257 -0.31237 142 52 53 48
-4.82432 -7.17057 -1.67937 104 156 153 121
-4.55232 -8.23357 -1.68237 66 184 182 153
-4.06332 -6.60857 -0.95037 91 151 153 134
-4.37632 -7.81257 -0.46437 148 164 164 160
-4.61932 -7.88257 -1.68337 105 148 147 120
-4.59932 -6.88857 -1.69037 92 127 116 98
-3.63632 -6.09757 -0.31937 151 46 47 39
-3.42132 -7.95357 -1.68337 86 42 38 39
-3.64632 -6.09157 -0.18137 169 51 49 40
-3.65432 -7.31357 -1.26437 59 84 83 78
-3.76332 -7.59957 -1.20637 83 94 94 89
-4.37432 -6.75757 -0.32037 163 177 179 174
-3.98632 -6.25657 -0.95037 123 10 10 8
-4.48332 -6.75057 -1.68537 98 143 141 113
-3.57432 -6.53657 -1.68837 94 49 45 40
-3.79332 -7.17257 -1.19037 69 137 134 131
-4.05432 -8.16457 -1.69337 114 87 80 70
-4.08432 -6.12357 -0.82937 123 63 60 47
-3.70432 -7.17457 -1.68837 75 49 49 46
-3.96732 -6.68557 -1.06137 92 118 118 113
-3.79132 -6.54757 -1.69037 87 61 61 51
-3.86232 -6.45257 -1.04237 126 2 2 2
-4.12832 -7.36957 -1.69037 95 83 84 68
-3.63532 -8.22457 -1.68337 78 57 47 47
-4.12732 -6.12757 -1.69337 95 101 103 85
-3.82532 -6.15557 -0.43637 165 42 38 33
-4.49032 -8.01257 -1.68037 86 136 135 116
-4.36432 -7.25257 -0.46137 153 160 162 151
-3.99532 -6.89757 -1.01937 82 111 112 107
-3.35932 -6.21557 -0.94037 126 23 24 19
-3.85032 -7.73857 -1.16237 102 99 101 96
-3.78032 -6.54257 -1.15537 95 106 106 88
-3.43532 -6.19557 -1.25937 114 10 10 8
-4.15632 -6.38857 -0.61137 136 27 27 24
-4.61532 -8.23057 -1.68037 100 132 133 120
-4.75732 -7.39057 -1.68037 72 226 222 197
-4.13532 -6.18757 -1.69037 107 150 137 114
-4.05732 -6.33357 -0.88037 126 8 8 8
-4.26632 -7.80757 -1.68237 69 130 129 103
-3.50232 -7.97257 -1.32037 36 32 32 23
-4.70032 -7.95157 -0.17937 147 252 252 254
-4.04132 -6.21157 -0.18037 104 31 31 29
-4.41032 -7.31757 -0.17937 167 185 186 179
-3.62532 -7.39057 -1.27737 76 57 58 53
-3.84232 -6.41057 -1.01537 97 6 6 6
-4.54432 -6.19357 -1.68837 91 118 114 92
-3.84232 -7.31157 -1.15237 104 106 106 104
-4.26732 -7.93657 -1.68237 90 117 114 102
-3.59632 -6.02857 -1.68837 90 46 47 42
-4.05732 -7.60457 -1.68837 102 77 75 62
-3.50132 -6.12157 -1.24137 115 12 12 10
-3.91032 -6.75257 -1.69337 116 86 84 72
-3.76632 -6.33557 -1.14037 73 95 96 90
-4.42432 -7.67157 -0.17837 168 183 184 179
-3.97532 -8.01657 -1.07737 90 117 117 117
-4.75932 -6.26757 -1.69037 87 163 158 129
-3.42032 -6.32357 -1.69537 88 42 41 37
-4.58532 -7.94757 -0.72037 185 200 206 203
-4.56832 -7.34057 -1.69237 119 117 120 100
-4.87932 -7.57757 -1.69037 97 149 150 120
-4.34032 -8.02157 -0.59237 78 178 180 174
-4.06432 -6.23757 -0.25637 143 20 22 10
-4.03232 -6.95357 -0.98837 101 126 127 119
-4.55432 -7.97057 -0.24537 120 160 161 154
-4.40632 -6.04557 -1.69037 112 149 151 130
-3.48932 -6.55057 -1.28537 39 51 51 39
-4.30832 -7.15157 -1.69237 116 114 109 88
-4.42132 -7.59357 -0.17837 174 188 189 181
-4.12232 -6.19657 -0.80237 107 127 127 127
-4.42132 -8.09657 -0.32037 139 168 168 165
-4.06532 -7.10257 -0.95737 119 127 128 119
-3.61632 -7.89557 -1.45737 35 48 51 32
-4.43032 -7.95957 -0.25037 151 139 140 128
-4.04432 -7.67157 -1.00537 126 127 127 123
-4.20432 -6.12457 -1.70037 128 135 126 107
-4.70132 -6.19857 -1.68337 107 165 167 139
-3.84432 -7.66557 -1.16237 97 89 89 87
-4.26532 -7.96157 -1.69037 105 119 115 100
-4.09732 -8.21657 -1.69037 101 85 82 72
-4.07032 -7.24457 -0.96037 59 152 149 132
-3.50232 -7.87657 -1.68737 95 23 19 21
-3.92432 -7.87657 -1.69037 106 71 67 58
-4.22332 -6.33257 -0.60537 109 17 15 14
-4.26432 -7.81057 -0.72937 155 146 146 139
-4.07632 -6.23857 -0.17037 154 35 35 29
-3.42532 -6.25457 -1.28037 22 41 43 33
-3.64532 -6.47657 -1.68837 82 46 47 42
-3.76932 -6.40757 -1.68837 83 60 60 54
-3.92132 -7.59257 -1.69037 67 115 112 91
-3.78132 -6.11857 -0.18037 161 45 46 37
-4.14832 -7.87457 -0.89537 135 125 126 117
-4.24632 -6.34657 -0.18037 85 15 15 13
-3.49332 -6.25257 -1.69237 80 43 42 37
-4.15432 -6.59857 -0.83437 132 139 140 134
-3.98932 -6.90657 -1.69837 114 91 85 72
-4.54032 -7.95157 -0.17537 62 179 181 167
-4.00132 -8.02357 -1.69037 100 62 62 54
-3.79532 -7.45957 -1.18337 68 82 82 79
-3.35532 -6.40857 -1.68737 96 61 61 60
-4.27632 -6.33757 -1.70037 101 115 109 93
-3.56332 -6.07257 -0.24937 147 48 50 37
-3.35332 -7.24357 -1.68437 90 45 41 42
-4.62132 -6.83057 -1.69037 90 131 125 107
-3.64132 -8.09557 -1.68537 63 44 44 44
-3.46132 -6.99157 -1.32637 23 95 94 83
-4.14032 -6.11957 -0.74637 111 106 102 88
-3.45032 -6.63057 -1.69037 125 39 31 28
-4.40032 -7.81057 -0.38437 159 168 169 164
-3.57232 -6.11457 -0.52937 135 40 41 36
-4.04832 -6.04757 -1.65737 32 57 51 43
-4.82832 -7.24557 -1.68337 65 169 161 142
-4.61232 -7.94557 -0.74737 16 238 237 239
-4.03832 -7.53457 -1.00537 84 102 102 100
-4.37632 -8.00657 -0.48737 140 163 163 163
-3.64732 -6.75057 -1.70037 143 45 41 40
-3.85332 -6.18757 -0.53337 150 27 26 24
-3.84932 -7.60257 -1.68737 71 49 50 39
-4.55032 -8.08457 -1.67737 85 139 141 120
-4.46332 -6.17057 -1.69037 105 139 134 118
-4.83232 -7.59357 -1.68437 110 176 175 148
-4.06332 -6.11557 -0.88037 123 136 135 131
-3.50232 -6.32857 -1.09137 127 8 8 6
-4.68932 -7.10257 -1.68337 67 196 189 158
-4.38732 -7.73457 -0.44037 159 169 170 164
-4.23432 -6.05457 -0.55937 118 63 64 48
-4.27832 -7.38557 -0.67237 118 153 152 146
-3.70732 -7.87757 -1.23937 70 83 83 81
-3.44232 -6.40857 -1.69037 89 41 40 36
-3.35232 -7.03457 -1.68437 101 43 41 42
-4.31732 -6.39457 -0.38037 161 172 172 171
-4.76732 -6.32857 -1.69537 104 145 135 111
-4.76132 -6.83857 -1.69037 97 176 169 140
-3.70532 -6.56057 -1.68837 89 48 48 46
-4.21732 -6.75757 -0.74137 119 131 132 127
